# .PCD v0.7 - Point Cloud Data file format
VERSION 0.7
FIELDS x y z
SIZE 4 4 4
TYPE F F F
COUNT 1 1 1
WIDTH 1545
HEIGHT 1
VIEWPOINT 0 0 0 1 0 0 0
POINTS 1545
DATA ascii
12.275943 14.340586 0.42798382
12.105213 14.576427 0.80624467
12.196717 14.165195 1.0591166
11.92936 14.754002 -2.7797456
11.92936 14.754002 -2.7797456
12.628882 15.007163 -0.14530241
12.31059 14.852126 0.39592043
12.081322 14.732053 0.80074
12.212008 14.538141 1.0376933
12.090328 16.065067 -2.8549986
12.090328 16.065067 -2.8549986
12.619643 16.102997 -0.22467339
12.619359 16.10475 -0.22237729
12.571875 16.397434 0.16107066
11.985561 17.03421 -2.9023149
11.985561 17.03421 -2.9023149
12.586831 16.904388 -0.23268016
12.52841 16.934006 -0.20546265
11.691052 17.358538 0.18465498
11.483035 18.827639 -3.0081918
11.880055 17.64151 -2.9314647
11.896194 17.593292 -2.9283457
12.56171 17.697031 -0.24817701
12.460971 17.702152 -0.19284698
11.76299 17.737633 0.19051103
11.883615 19.227959 -3.0225511
11.81894 19.057964 -3.0013392
11.73163 18.828472 -2.972703
12.606115 18.817041 -0.3765372
12.567306 18.845663 -0.3016586
12.311161 19.034565 0.19254026
11.977677 19.927542 -3.0647602
11.905555 19.853554 -3.0514495
11.464331 19.400923 -2.9700205
12.593206 20.007128 -0.4406735
12.539618 19.968445 -0.3336519
12.298472 19.794374 0.1479454
11.93386 21.099724 -3.1434519
11.930376 21.091602 -3.1422901
11.811099 20.861559 -2.2173805
12.544952 21.031836 -0.54456532
12.506763 20.956106 -0.35544467
12.247842 20.802828 0.1783374
11.909062 21.712648 -3.1802101
11.905134 21.71693 -3.1727529
11.399055 22.042662 -1.7337289
12.189063 21.884237 -0.77716476
12.198606 22.096102 -0.087507151
12.05421 22.246799 0.17998321
11.86725 22.56142 -3.2156179
11.859064 22.550266 -3.1972079
11.36185 22.41185 -1.7490702
12.142058 22.996946 -0.85034132
12.181373 22.645374 -0.12036274
12.040022 22.332241 0.17438634
11.558469 24.085499 -3.2959492
11.558469 24.085499 -3.2959492
11.934263 23.476318 -1.5120742
12.470145 23.889215 -0.72536659
12.523733 23.930506 -0.64669585
11.568918 24.660419 -3.3183346
11.568918 24.660419 -3.3183346
11.794027 25.675852 -1.1163039
12.06929 25.477877 -0.80358297
12.12913 25.434839 -0.73560011
11.60235 25.154177 -3.3308723
11.60235 25.154177 -3.3308723
11.794027 25.675852 -1.1163039
12.033975 25.608744 -0.81757718
12.091105 25.592766 -0.74645174
12.493589 26.847618 -0.80908239
12.493589 26.847618 -0.80908239
12.490826 27.474152 -0.8409161
12.490826 27.474152 -0.8409161
11.606727 29.833555 -2.1032298
12.110758 29.506224 -1.3458325
12.123415 29.39279 -0.60716683
12.122067 29.392754 -0.60295123
11.387196 30.425327 -3.1160533
11.392244 30.234074 -2.5252988
11.925169 29.693647 -1.5479887
12.122326 29.423853 -0.60344112
12.121008 29.424078 -0.59931248
11.387196 30.425327 -3.1160533
11.285004 30.434334 -2.7363334
11.182813 30.44334 -2.3566134
12.084332 30.507929 -0.47341326
12.084332 30.507929 -0.47341326
12.582139 32.39489 -0.7811693
12.582139 32.39489 -0.7811693
12.582139 32.39489 -0.7811693
12.582139 32.39489 -0.7811693
12.435246 34.958656 -0.58180696
12.435246 34.958656 -0.58180696
12.416143 34.978874 -0.57757646
12.416143 34.978874 -0.57757646
12.377938 35.019302 -0.56911546
12.377938 35.019302 -0.56911546
11.415676 38.949772 -3.8285096
11.415676 38.949772 -3.8285096
11.415676 38.949772 -3.8285096
11.415676 38.949772 -3.8285096
12.433749 39.301266 -0.86841708
12.433749 39.301266 -0.86841708
12.433749 39.301266 -0.86841708
12.433749 39.301266 -0.86841708
11.734087 41.217075 -1.5625052
11.734087 41.217075 -1.5625052
11.734087 41.217075 -1.5625052
11.734087 41.217075 -1.5625052
11.797489 47.546429 -5.057272
12.035172 47.532272 -4.4717708
12.015398 47.572773 -3.526444
12.013947 47.582558 -3.182122
12.025727 47.588226 -2.6833847
11.797489 47.546429 -5.057272
12.035172 47.532272 -4.4717708
12.015398 47.572773 -3.526444
12.013947 47.582558 -3.182122
12.025727 47.588226 -2.6833847
11.003316 111.77258 -7.7106476
11.003316 111.77258 -7.7106476
11.003316 111.77258 -7.7106476
11.003316 111.77258 -7.7106476
13.03866 -73.016777 2.6662736
12.850825 -73.014397 2.7884929
12.431973 -73.108696 3.2102547
12.086519 -73.901268 4.6288424
13.913106 -72.98027 1.9307238
13.047124 -72.780083 2.789151
13.003922 -72.844101 3.2595925
12.986131 -72.826073 4.106287
12.989763 -72.756088 4.888567
12.995911 -72.674988 5.6510339
12.992143 -72.64283 6.5299754
13.013233 -72.611389 7.494576
13.016741 -72.51619 8.102272
13.913106 -72.98027 1.9307238
13.008858 -72.462509 2.7516243
12.994713 -72.723167 3.2064116
12.986935 -72.825661 4.1075878
12.994119 -72.746544 4.8954849
13.018185 -72.630013 5.6655455
13.037092 -72.558846 6.5051279
13.013233 -72.611389 7.494576
13.016741 -72.51619 8.102272
12.903285 -70.958351 2.5924203
12.903285 -70.958351 2.5924203
13.461998 -70.530869 4.8138542
13.274895 -70.646896 5.3241105
13.318441 -70.756905 5.4466834
13.626043 -71.458504 6.1795602
12.984493 -69.98568 2.5214381
12.984493 -69.98568 2.5214381
13.461998 -70.530869 4.8138542
13.249218 -70.471764 5.2658978
13.244729 -70.47052 5.2754345
12.990832 -68.863472 2.435277
12.988261 -68.861618 2.4408584
12.312607 -68.374619 3.9073503
13.388601 -68.834923 5.7978811
13.121693 -68.385574 6.0627379
13.013307 -68.209785 6.1941772
12.759191 -68.022507 7.3062706
12.967072 -68.063629 2.3806393
12.964569 -68.063126 2.3895237
12.544523 -67.978706 3.88062
13.321724 -68.049675 5.888896
13.137017 -67.909058 6.1220374
13.098563 -67.88546 6.1805849
12.759191 -68.022507 7.3062706
13.002343 -67.064323 2.3180437
12.993219 -67.039154 2.3617823
13.073717 -66.845177 4.7951326
13.220488 -66.64521 5.1330142
13.266932 -66.7761 5.6500406
13.153106 -67.479599 6.1624618
13.056931 -66.043564 2.2469056
13.049983 -65.891792 2.6540234
13.089354 -66.156654 4.2629576
13.229153 -65.804802 5.1232686
13.245386 -65.541161 5.1939449
12.71371 -66.925056 6.1267118
12.961626 -64.313072 1.8780104
13.042086 -64.844315 2.1597595
13.047979 -64.989441 2.5112259
13.101852 -65.45298 3.7100782
13.211255 -65.045761 5.2698884
13.204374 -65.036209 5.2820134
13.589467 -64.027405 6.0011506
12.980294 -63.980785 1.9106566
13.03793 -64.072701 2.105689
13.035085 -64.073555 2.1145306
13.352954 -63.092117 4.6763778
13.171302 -63.824322 5.5155368
13.111454 -64.032257 5.7352366
13.354335 -64.005302 6.0016456
12.912627 -62.310287 1.9669816
13.036994 -63.024433 2.0382721
13.067255 -63.222282 2.0648699
13.173179 -62.621857 4.7169147
13.144451 -62.670105 5.026598
13.059326 -62.810883 5.8321567
13.119202 -63.983204 6.0021405
12.953324 -61.693504 1.9445316
12.984182 -61.943401 1.9676367
13.067784 -62.620419 2.0302329
13.069433 -61.971882 4.7062168
13.08821 -61.960369 4.9378557
13.144209 -61.926033 5.6287098
12.939433 -60.988373 1.9052318
12.943691 -60.994999 1.9060096
13.490822 -61.846531 2.0059469
12.987424 -61.097157 4.7001462
13.032186 -61.06773 4.8415279
13.177097 -60.972469 5.2992373
12.958783 -59.997635 1.8391851
12.958783 -59.997635 1.8391851
12.990378 -60.893208 4.7118173
13.024045 -60.503838 4.9709344
13.068118 -59.994122 5.3101416
13.020701 -59.017918 1.77737
13.018564 -59.017838 1.7798731
12.239504 -58.989002 2.6922839
13.248096 -58.714554 4.9631815
13.075109 -59.236305 5.3531041
13.053054 -59.30283 5.4028177
13.008541 -57.979347 1.7173706
13.006397 -57.981853 1.7207546
12.613561 -58.357235 2.8581569
13.075132 -57.307716 4.5459352
13.085702 -57.505585 4.7513957
13.119386 -58.143185 5.4102116
13.014989 -57.000118 1.6559857
13.014976 -57.00119 1.6567507
12.987617 -57.725471 3.02403
13.028757 -56.905907 4.5226264
13.046125 -56.920944 4.6006947
13.205954 -57.064083 5.316771
13.059967 -56.009731 1.59188
13.059967 -56.009731 1.59188
12.939185 -55.756245 4.5815229
12.96209 -55.726475 4.7014475
13.061767 -55.596924 5.2233071
13.07428 -55.01347 1.5302871
13.07428 -55.01347 1.5302871
12.848485 -54.296604 3.9819024
12.940546 -55.083019 4.5058141
12.956803 -55.104454 4.6843009
13.00668 -55.132645 5.2594037
13.060924 -53.9175 1.4631789
13.060924 -53.9175 1.4631789
12.833612 -53.795933 3.9790847
12.946824 -54.211727 4.2926955
12.969625 -54.173363 4.5801487
12.999247 -53.956726 5.2599516
12.988645 -52.918175 1.4033599
12.988645 -52.918175 1.4033599
12.823118 -52.853001 3.9657183
12.953829 -53.017067 4.2795444
12.994278 -53.083851 4.664423
12.985962 -53.105183 5.2153029
12.937348 -52.030678 1.3392643
12.937348 -52.030678 1.3392643
12.807395 -51.898056 3.918643
12.928001 -51.79438 4.4356995
12.960606 -51.85041 4.7120714
12.920752 -52.261509 5.1535668
12.9709 -50.962708 1.2572252
12.9709 -50.962708 1.2572252
12.791153 -50.881245 3.837739
12.889361 -51.096699 4.3357973
12.928249 -51.240044 4.6648879
12.780902 -51.432854 5.0903111
12.9787 -49.995037 1.1862833
12.9787 -49.995037 1.1862833
12.785149 -50.256542 3.7961195
12.908044 -50.109032 4.1261191
13.022289 -49.969101 4.5168023
12.248222 -50.81036 5.0700645
13.332903 -48.302689 0.99418873
12.976293 -49.11269 1.1231831
12.97454 -49.116673 1.123817
13.019004 -48.542625 3.6843562
12.997148 -48.533466 4.1727142
12.984984 -48.52837 4.4444842
12.893701 -47.29686 0.97572881
13.030759 -47.926285 1.0395855
13.071052 -48.111324 1.0583583
13.049432 -48.023342 3.7049854
13.015824 -48.174473 4.1071177
12.985208 -48.312149 4.473454
12.91749 -46.717621 0.95176649
12.983565 -46.964237 0.97295272
13.146224 -47.571346 1.0251076
13.153889 -47.337261 3.7054951
13.100444 -47.159992 4.0439506
13.004041 -46.840237 4.6544533
12.947457 -46.030819 0.91356403
12.949175 -46.034046 0.91389024
13.41456 -46.909306 1.0022826
13.551885 -46.001526 3.5378382
13.232366 -46.041103 4.143043
13.029743 -46.066204 4.5268316
12.955365 -44.980988 0.84723806
12.955365 -44.980988 0.84723806
13.497886 -45.039413 3.5280089
13.265845 -45.126797 3.9672871
13.033805 -45.21418 4.4065652
12.973271 -44.063858 0.7861883
12.973271 -44.063858 0.7861883
13.082437 -43.697575 3.5871096
13.008424 -43.578941 3.9593601
12.954633 -43.492722 4.2299051
12.979493 -42.891876 0.70673048
12.979493 -42.891876 0.70673048
13.026713 -42.773136 3.5552049
13.00435 -42.920303 3.8403928
12.970668 -43.141941 4.269896
12.961025 -41.982624 0.64704651
12.961025 -41.982624 0.64704651
13.125451 -41.996372 3.4901316
13.102451 -42.000858 3.6357222
12.973474 -42.026016 4.4521551
12.972412 -41.095062 0.59042245
12.972412 -41.095062 0.59042245
13.150188 -40.932598 3.4635832
13.124059 -40.944244 3.56235
12.911205 -41.039127 4.3669071
13.017191 -39.958385 0.5249576
13.017191 -39.958385 0.5249576
13.161536 -40.063053 3.4546797
13.131187 -40.040657 3.5360546
12.8701 -39.847977 4.236104
12.988711 -39.030697 0.46788862
12.988711 -39.030697 0.46788862
13.081209 -38.365067 2.8272092
13.13631 -39.097328 3.4100709
13.105128 -39.083889 3.5175242
12.911215 -38.992912 4.1776958
12.941344 -38.001053 0.39823645
12.941344 -38.001053 0.39823645
13.24586 -37.417377 2.948391
13.061359 -38.022106 3.3139718
13.033309 -38.117786 3.4417353
12.944327 -38.438015 4.169919
12.961133 -36.939575 0.34011957
12.960186 -36.938221 0.34121758
13.117403 -36.738911 2.9351568
13.048455 -37.002544 3.1774576
13.013525 -37.090149 3.3260236
12.886628 -37.047668 4.1568222
12.793475 -35.894764 0.46895075
12.755879 -35.752918 0.81000936
12.813498 -35.644733 2.0080776
13.084541 -35.741348 3.2172165
13.106257 -35.706322 3.4041407
12.894827 -35.883949 4.0886741
12.72748 -35.065815 0.50487453
12.708939 -35.071697 0.8840844
12.76289 -34.990688 1.9123437
13.040257 -34.927563 3.2515738
13.097327 -34.987881 3.475683
12.959629 -35.116146 4.043263
12.807717 -34.217358 0.38501421
12.763975 -34.330315 0.71645421
12.812229 -34.242775 2.2214322
12.985579 -34.131493 3.1661348
13.041811 -34.246506 3.450069
13.010771 -34.644451 4.0204196
12.920977 -32.173077 -0.0055194022
12.992763 -33.031334 0.091698565
12.9931 -33.03537 0.092155702
12.98017 -32.939789 2.8005927
12.997061 -33.001427 3.0353405
13.019201 -33.082222 3.3430381
13.051389 -31.364901 -0.021350225
13.014164 -32.011555 0.027295485
12.998957 -32.275723 0.047168013
12.962543 -31.925266 2.7709699
12.973 -31.930729 2.961695
12.990717 -31.939987 3.2848902
13.014955 -30.811899 -0.047572315
13.034621 -30.982651 -0.032375719
13.102456 -31.5716 0.020040084
12.980191 -30.930403 2.7586238
13.007864 -30.832321 3.0709808
13.03256 -30.744787 3.3497498
12.975482 -30.071657 -0.093745351
12.983933 -30.098148 -0.089836799
13.214486 -30.820768 0.016775271
13.009878 -29.967752 2.7162871
13.024539 -30.157021 3.0577257
13.039065 -30.34454 3.3960123
12.977208 -28.9652 -0.16418715
12.977208 -28.9652 -0.16418715
12.955465 -28.950598 2.6298807
12.94744 -28.949394 2.8381205
12.925287 -28.946068 3.4129045
13.013124 -27.962278 -0.22393849
13.013124 -27.962278 -0.22393849
12.914025 -28.04162 2.5894675
12.907265 -28.077208 2.7547998
12.881462 -28.21303 3.385776
13.016534 -26.934277 -0.28784138
13.017181 -26.934151 -0.28582561
13.351565 -26.868797 0.7549907
12.898892 -26.947226 2.5617285
12.906816 -26.860641 2.7212162
12.933918 -26.564497 3.266711
12.99752 -26.002014 -0.34534267
12.998142 -26.00354 -0.34340772
13.351565 -26.868797 0.7549907
12.91112 -26.00667 2.5231767
12.930455 -25.992558 2.764987
12.969003 -25.964426 3.2470798
12.952882 -25.037971 -0.40349099
12.953219 -25.037661 -0.40226662
13.227515 -24.785603 0.59438121
12.874763 -24.958092 2.446995
12.906176 -25.073614 2.6735249
12.992756 -25.392033 3.2979198
12.915953 -24.065588 -0.46131727
12.916389 -24.066597 -0.45983869
13.107295 -23.331139 1.789001
12.851401 -24.113472 2.3568168
12.870175 -24.122002 2.513371
12.973592 -24.1422 3.320456
12.9551 -23.003733 -0.5242613
12.9551 -23.003733 -0.5242613
13.082996 -22.672359 1.9863781
12.959598 -22.856981 2.3747954
12.959134 -22.886337 2.4700737
12.962836 -23.127714 3.2666647
12.988882 -22.009848 -0.58284199
12.988882 -22.009848 -0.58284199
13.063437 -21.426502 1.971895
12.930201 -21.928257 2.4416845
12.92722 -21.915815 2.5393004
12.94829 -21.658152 3.1214042
12.961923 -20.971161 -0.64664859
12.961923 -20.971161 -0.64664859
12.960044 -20.770554 1.9543722
12.838454 -21.119806 2.3525915
12.84676 -21.157061 2.5350175
12.982727 -21.064135 3.1106634
12.997687 -20.013119 -0.70913762
12.997687 -20.013119 -0.70913762
12.894145 -19.818933 1.8962976
12.794044 -19.945177 2.1440785
12.805362 -20.009998 2.4318926
13.064309 -20.012571 3.1052361
13.062246 -19.0574 -0.77615869
13.062246 -19.0574 -0.77615869
12.880188 -18.986094 1.8580194
12.813398 -19.070477 2.1061356
12.812733 -19.140425 2.4332285
13.037383 -19.166759 3.0556254
12.824416 -17.712532 -0.58019191
12.765959 -17.634274 -0.41547593
12.725083 -17.73172 1.2072858
12.8038 -18.003561 2.0510554
12.809234 -18.126772 2.371392
12.99403 -18.604689 3.0245481
12.786633 -16.263952 -1.0321845
12.88036 -17.077494 -0.52346486
12.801225 -17.044998 -0.32689792
12.683709 -16.974728 0.9831695
12.833032 -16.911283 2.2073803
12.889095 -16.85413 2.4807026
13.344693 -17.906004 3.0067732
12.951954 -15.379327 -1.0252175
12.880569 -16.115206 -0.59367222
12.805215 -16.27072 -0.36543435
12.703547 -16.095682 1.2336906
12.830318 -16.177111 2.1844382
12.898783 -16.375132 2.5152617
12.974517 -14.792585 -1.0510644
12.782966 -15.323115 -0.78938466
12.567739 -15.856401 -0.46243927
12.748765 -15.00817 1.6267418
12.792727 -14.983605 1.9390434
12.840606 -15.078769 2.4778204
13.013192 -14.004547 -1.0946864
13.013192 -14.004547 -1.0946864
12.782197 -13.994577 1.6934507
12.791884 -13.886243 1.9139025
12.810603 -13.676936 2.3398221
13.03705 -12.990284 -1.152891
13.03705 -12.990284 -1.152891
12.774822 -12.991723 1.6559092
12.816833 -12.897408 1.9452617
12.866323 -12.786305 2.2861214
12.989805 -12.023516 -1.2086201
12.989805 -12.023516 -1.2086201
12.734672 -12.030246 1.5908999
12.827038 -12.071318 1.9282925
12.934371 -12.119045 2.3203578
12.950805 -11.033114 -1.2683334
12.950805 -11.033114 -1.2683334
12.660317 -10.978065 1.5356364
12.751709 -11.112449 1.8391061
12.912409 -11.348744 2.3727183
12.974916 -9.9679146 -1.3327541
12.974916 -9.9679146 -1.3327541
12.630895 -9.9414225 1.4912913
12.680526 -9.9990234 1.6831445
12.872647 -10.221996 2.4258018
13.029714 -9.0149097 -1.3907775
13.029714 -9.0149097 -1.3907775
12.61504 -9.0455389 1.4549055
12.656074 -9.0555401 1.5856994
12.917635 -9.1192913 2.4194107
13.089844 -8.0202131 -1.4524052
13.089844 -8.0202131 -1.4524052
12.639977 -7.8927579 1.4942631
12.699986 -7.8624167 1.6369509
12.941413 -7.7403474 2.2110147
13.070588 -6.9799943 -1.518674
13.070588 -6.9799943 -1.518674
12.631563 -7.1193981 1.4419936
12.695848 -7.1566272 1.5932097
12.948727 -7.3030744 2.188046
12.989689 -5.9685702 -1.5840684
12.989689 -5.9685702 -1.5840684
12.832623 -5.3012376 0.97755665
12.694281 -5.6999593 1.3259912
12.69981 -5.7428951 1.3931391
12.850827 -6.1966634 2.2370849
12.99304 -5.0152559 -1.6407019
12.99304 -5.0152559 -1.6407019
12.834428 -4.6657443 0.957573
12.752035 -5.0938306 1.3206944
12.744222 -5.131526 1.4284523
12.804172 -4.7807736 2.1577883
13.043754 -4.0758348 -1.6896843
13.043754 -4.0758348 -1.6896843
12.828076 -3.9410899 0.93971539
12.791266 -3.9966977 1.2067523
12.793383 -4.0258636 1.5508323
12.884996 -3.9998932 2.1348691
13.04129 -3.0293961 -1.7442263
13.04129 -3.0293961 -1.7442263
12.977041 -2.8819864 0.91103357
12.96053 -2.8701451 1.2473505
12.95076 -2.8925979 1.4354506
12.911729 -3.2547302 2.0857799
12.998568 -1.9569848 -1.8046674
12.998568 -1.9569848 -1.8046674
12.977535 -2.3642073 0.87107867
12.961998 -2.6032596 1.2327909
12.95262 -2.7156868 1.4153229
12.875975 -2.8672383 2.04509
13.025987 -0.92929381 -1.8645771
13.025987 -0.92929381 -1.8645771
12.792233 -0.9187243 0.72948039
12.748055 -0.97010309 0.8132062
12.477092 -1.2852263 1.3267245
12.760201 0.90747255 -2.008945
13.063207 -0.025512202 -1.9185108
13.065121 -0.031404737 -1.9179397
12.948079 0.21433936 0.79051554
12.905613 0.22368677 0.84178042
12.664253 0.27681315 1.1331464
12.913479 1.615634 -2.0232458
13.029558 0.98619658 -1.9793664
13.085315 0.6838603 -1.95829
13.020685 0.67620277 0.80166572
12.970631 0.69747281 0.88750732
12.7761 0.78013593 1.2211189
12.951798 2.1290083 -2.0511034
12.989908 1.9677769 -2.0389607
13.159447 1.2505034 -1.9849417
12.920538 1.9344534 0.64037943
12.907506 1.8661145 0.78917849
12.857484 1.6038041 1.3603265
12.947527 3.0015273 -2.1016619
12.947527 3.0015273 -2.1016619
12.759836 3.1662946 0.50978541
12.72719 3.1837652 0.58270776
12.475259 3.3185859 1.145448
12.919622 3.980545 -2.1554067
12.919622 3.980545 -2.1554067
12.310444 4.1694322 -0.56251973
12.747194 3.997529 0.46528581
12.719695 4.0012207 0.59517628
12.563142 4.0247006 1.2674644
12.941757 4.986506 -2.2055068
12.941757 4.986506 -2.2055068
12.310444 4.1694322 -0.56251973
12.739342 4.8502846 0.42083532
12.836178 5.0206041 0.73231101
12.988296 5.2887149 1.2246152
12.978667 5.8855829 -2.2528613
12.978667 5.8855829 -2.2528613
12.73767 5.9614143 0.36746302
12.871309 5.8025308 0.69396478
13.074313 5.5611796 1.1899365
13.028007 6.8639464 -2.3106334
13.028007 6.8639464 -2.3106334
12.681244 6.9768271 0.36866969
12.660648 6.989141 0.41205603
12.338613 7.1816864 1.0904605
12.919544 8.0415363 -2.3866067
12.919544 8.0415363 -2.3866067
13.060775 8.6568584 -0.082443669
12.711238 8.0418253 0.35451946
12.706605 8.0630703 0.47737867
12.687411 8.2203808 1.2623085
12.800936 8.8848648 -2.4411535
12.800936 8.8848648 -2.4411535
13.060775 8.6568584 -0.082443669
12.82112 8.9656296 0.48744431
12.932488 9.2043972 0.78558707
13.083117 9.5209856 1.1794776
12.837111 9.9579 -2.5002656
12.837111 9.9579 -2.5002656
12.947873 10.250953 0.42462361
12.984606 10.138748 0.57034791
13.129998 9.6946287 1.147145
12.889403 10.787325 -2.5419991
12.889403 10.787325 -2.5419991
12.666403 11.633102 -0.018035049
12.922291 10.450541 0.33643857
12.932396 10.40384 0.35043687
12.965213 12.037593 -2.6183643
12.965213 12.037593 -2.6183643
12.657105 12.253696 -0.040594071
12.653568 11.978803 0.017440001
12.64677 11.528766 0.13002083
12.597199 12.689788 1.0094795
12.84707 13.072527 -2.6812654
12.84707 13.072527 -2.6812654
12.648846 12.942639 -0.054147568
12.614056 12.940047 0.047541518
12.453005 12.999977 0.6008532
12.460815 13.432148 1.0734289
12.760699 13.702613 -2.712929
12.760699 13.702613 -2.712929
12.638819 13.983902 -0.077692106
12.874453 14.401175 0.48342481
12.999928 14.603941 0.80269223
12.98129 14.281906 1.0628594
12.844918 14.763391 -2.767997
12.844918 14.763391 -2.767997
12.628882 15.007163 -0.14530241
12.895242 14.846304 0.42948511
13.064981 14.734476 0.79784262
13.166147 14.503296 1.0540072
12.964109 16.05298 -2.8464777
12.964109 16.05298 -2.8464777
12.619643 16.102997 -0.22467339
12.619359 16.10475 -0.22237729
12.571875 16.397434 0.16107066
12.862355 17.072138 -2.8972976
12.862355 17.072138 -2.8972976
12.674611 16.941967 -0.2205779
12.675639 16.947304 -0.21286477
12.722707 17.191483 0.14001031
12.804552 18.803232 -3.0050187
12.772328 17.578335 -2.9228809
12.77162 17.551414 -2.9210756
12.713007 17.679974 -0.22609201
12.704253 17.703751 -0.20532106
12.546678 18.131725 0.16855599
12.799337 19.299982 -3.0205607
12.750246 19.105114 -3.0087523
12.621854 18.595461 -2.9778688
12.606115 18.817041 -0.3765372
12.567306 18.845663 -0.3016586
12.311161 19.034565 0.19254026
12.670732 19.92725 -3.0629325
12.684033 19.907726 -3.0607944
13.129595 19.253679 -2.9891701
12.593206 20.007128 -0.4406735
12.539618 19.968445 -0.3336519
12.298472 19.794374 0.1479454
12.736309 21.097412 -3.1413286
12.736309 21.097412 -3.1413286
12.120292 21.630384 -1.4353676
12.544952 21.031836 -0.54456532
12.506763 20.956106 -0.35544467
12.247842 20.802828 0.1783374
12.829399 21.768478 -3.1786683
12.829399 21.768478 -3.1786683
12.120292 21.630384 -1.4353676
12.521873 21.80246 -0.59786701
12.752663 22.127596 -0.034286946
12.843736 22.271042 0.19361536
12.758628 22.412933 -3.2056201
12.758628 22.412933 -3.2056201
12.537177 23.261341 -0.60489607
12.784398 22.632486 -0.059764612
12.897707 22.344263 0.1900873
12.694854 24.034164 -3.2894237
12.694854 24.034164 -3.2894237
12.523733 23.930506 -0.64669585
12.523733 23.930506 -0.64669585
12.829186 24.969082 -3.3271112
12.829186 24.969082 -3.3271112
12.939397 25.708385 -1.1128137
12.817814 25.451361 -0.79451555
12.792217 25.397249 -0.72750539
13.127468 25.149704 -3.3378398
13.127468 25.149704 -3.3378398
12.939397 25.708385 -1.1128137
12.845377 25.610863 -0.81097811
12.823255 25.587915 -0.73995799
12.493589 26.847618 -0.80908239
12.493589 26.847618 -0.80908239
12.490826 27.474152 -0.8409161
12.490826 27.474152 -0.8409161
13.347778 29.388189 -1.0148593
12.825447 29.427776 -0.6013335
12.814971 29.42857 -0.59303927
13.347778 29.388189 -1.0148593
12.827621 29.454062 -0.59893572
12.817451 29.455351 -0.59080315
12.913598 30.493811 -0.50409007
12.913598 30.493811 -0.50409007
13.250797 32.367615 -0.7847997
13.250797 32.367615 -0.7847997
13.250797 32.367615 -0.7847997
13.250797 32.367615 -0.7847997
13.252052 34.95575 -0.58323538
13.252052 34.95575 -0.58323538
13.210756 34.965351 -0.57933217
13.210756 34.965351 -0.57933217
12.952653 35.025337 -0.55493706
12.952653 35.025337 -0.55493706
13.841852 39.282452 -1.267837
13.158071 39.303745 -0.87511563
13.153098 39.303902 -0.8722595
13.841852 39.282452 -1.267837
13.158071 39.303745 -0.87511563
13.153098 39.303902 -0.8722595
12.622708 41.268013 -1.7321326
12.622708 41.268013 -1.7321326
12.622708 41.268013 -1.7321326
12.622708 41.268013 -1.7321326
13.684889 43.135452 -2.525846
13.684889 43.135452 -2.525846
13.684889 43.135452 -2.525846
13.684889 43.135452 -2.525846
13.104274 47.551086 -5.0659394
13.075726 47.537689 -4.4690156
13.023369 47.581059 -3.5480475
13.004176 47.592484 -3.1766062
12.981747 47.597904 -2.6779935
13.055819 47.697834 -1.653797
13.104274 47.551086 -5.0659394
13.075726 47.537689 -4.4690156
13.023369 47.581059 -3.5480475
13.004176 47.592484 -3.1766062
12.981747 47.597904 -2.6779935
13.055819 47.697834 -1.653797
13.87819 -73.015396 2.6689308
13.87819 -73.015396 2.6689308
14.087183 -72.978798 1.8854059
13.961003 -72.791199 2.7810037
13.991247 -72.839813 3.2606115
14.000699 -72.81366 4.1142154
14.003084 -72.736305 4.9090314
14.009084 -72.6446 5.6724443
14.010009 -72.61718 6.6151476
14.062711 -72.606293 7.5600638
13.602952 -72.588615 8.0693293
14.087183 -72.978798 1.8854059
13.962986 -72.508835 2.7499003
13.989704 -72.734833 3.2136972
14.000823 -72.813446 4.1142373
14.000644 -72.726761 4.9157133
13.996324 -72.598755 5.6879005
13.987662 -72.532326 6.5840321
14.062711 -72.606293 7.5600638
13.602952 -72.588615 8.0693293
13.991527 -71.009827 2.599839
13.991527 -71.009827 2.599839
14.006553 -70.55777 4.6588106
13.834182 -70.629341 5.3011761
13.814467 -70.745262 5.4354086
13.715869 -71.50029 6.2055798
13.985029 -69.926849 2.5255539
13.985029 -69.926849 2.5255539
14.025856 -70.347786 4.7277684
13.846677 -70.46862 5.2507205
13.841329 -70.472221 5.2663312
14.025952 -68.870628 2.444581
14.025952 -68.870628 2.444581
14.921358 -69.823944 4.802887
13.85554 -68.742393 5.807714
13.972229 -68.360832 6.0505528
14.030119 -68.212234 6.1496687
14.192464 -68.079796 7.1046762
14.066722 -68.012779 2.3848915
14.066403 -68.01207 2.3863583
13.760385 -67.327972 3.7958155
13.808598 -68.07859 5.903307
13.980283 -67.87944 6.118135
14.012381 -67.843933 6.1610942
14.192464 -68.079796 7.1046762
14.075453 -67.048569 2.3193629
14.068062 -67.037567 2.3385656
13.805141 -66.862938 4.8606629
13.940664 -66.537399 5.2030339
14.023846 -66.693901 5.6653481
14.0169 -67.472214 6.1697392
14.10463 -65.97126 2.2398684
14.004784 -65.883606 2.4691398
13.721518 -66.232857 4.4290075
14.01841 -65.709053 5.1486616
14.052652 -65.518433 5.2064509
14.327105 -66.929817 6.1432667
13.751397 -64.535583 1.8918172
14.001784 -64.944389 2.1697216
13.928825 -65.008904 2.3853509
13.609727 -65.395782 3.8465071
14.02753 -65.084618 5.2429585
14.024356 -65.072639 5.2583289
13.589467 -64.027405 6.0011506
13.780158 -64.136391 1.9212788
13.972881 -64.001945 2.1068363
13.974615 -64.000732 2.108506
13.483119 -63.053444 4.708302
13.863586 -63.826824 5.5323434
13.952558 -64.015633 5.7353525
13.354335 -64.005302 6.0016456
14.047709 -62.263016 1.9723653
14.050926 -63.032806 2.0448699
14.051633 -63.201752 2.0607827
13.836097 -62.607521 4.723443
13.858923 -62.656227 4.9947629
13.926414 -62.81234 5.8377895
13.119202 -63.983204 6.0021405
14.019796 -61.690552 1.9494562
14.039785 -61.968277 1.974176
14.085927 -62.609364 2.0312386
13.864202 -62.119419 4.7042012
13.826765 -62.083218 4.9166231
13.7008 -61.961411 5.6313596
13.997032 -61.043434 1.9138407
14.000175 -61.055107 1.9152757
14.207659 -61.825504 2.0099883
13.916663 -61.139923 4.7086148
13.867785 -61.083786 4.8569288
13.726945 -60.922035 5.284286
13.957638 -59.996964 1.8452303
13.957638 -59.996964 1.8452303
13.940634 -60.888596 4.7342153
13.899042 -60.51495 4.9840407
13.847457 -60.051517 5.2938991
13.96011 -58.994766 1.7824674
13.96011 -58.994766 1.7824674
13.248096 -58.714554 4.9631815
13.690223 -59.222065 5.3417006
13.749506 -59.290115 5.3924551
13.976188 -57.990208 1.7229873
13.974789 -57.98988 1.7236756
13.005188 -57.763355 2.2006438
13.770682 -57.342903 4.5930929
13.738513 -57.558483 4.7996545
13.644659 -58.187435 5.4022889
14.004066 -56.962315 1.658448
14.002716 -56.963398 1.6591806
13.712502 -56.92532 3.0174172
13.756793 -57.047871 4.6246119
13.791335 -57.010876 4.7286453
13.983063 -56.804302 5.2922821
14.00448 -56.000069 1.5981101
14.00448 -56.000069 1.5981101
14.722392 -55.877876 3.9607315
14.047173 -55.713184 4.5515599
14.009279 -55.701241 4.7282047
13.988667 -55.687389 5.2151837
14.000887 -55.011189 1.5347438
14.000887 -55.011189 1.5347438
14.727435 -55.874386 3.9628403
14.044793 -55.391621 4.5371237
13.976654 -55.334438 4.7245016
13.851101 -55.216759 5.2478404
14.029995 -53.974655 1.467343
14.029995 -53.974655 1.467343
13.572653 -54.499329 4.6670737
13.63907 -54.259892 4.9137621
13.735073 -53.913784 5.2703457
13.932986 -52.959698 1.4069072
13.932986 -52.959698 1.4069072
13.123496 -52.795948 4.646585
13.402802 -52.929062 4.892838
13.777708 -53.107735 5.2233791
13.878676 -52.013523 1.3401747
13.878676 -52.013523 1.3401747
13.47844 -51.770267 4.661253
13.555661 -51.855484 4.7543373
13.886369 -52.220425 5.1529813
13.888138 -50.946972 1.2564697
13.888138 -50.946972 1.2564697
13.575858 -51.142353 4.622057
13.621094 -51.163124 4.6648831
14.056491 -51.363068 5.0770841
13.880143 -50.043121 1.1901569
13.880143 -50.043121 1.1901569
13.077938 -49.965908 4.4956002
13.077938 -49.965908 4.4956002
14.014615 -48.275528 0.99042004
13.951109 -49.030727 1.1177782
13.950686 -49.035755 1.1186256
13.99211 -48.408199 3.6670849
13.930613 -48.476315 4.1499271
13.89571 -48.514973 4.4239674
13.795784 -47.304775 0.98209208
14.014372 -47.936474 1.0471044
14.045288 -48.025818 1.0562993
13.97391 -48.017887 3.6986487
13.960405 -48.174755 4.0692949
13.946734 -48.333557 4.4445114
13.892006 -46.654716 0.95631963
13.965993 -47.033073 0.98820299
14.064115 -47.534859 1.0304871
13.880471 -47.33569 3.7045524
13.776793 -47.202461 3.9604402
13.507775 -46.856777 4.6243916
13.945249 -45.992271 0.91898835
13.949515 -46.001942 0.92015111
14.262682 -46.711487 1.0054944
13.553005 -46.003342 3.5369036
13.463882 -46.017048 4.0449448
13.38747 -46.028801 4.4805346
13.954649 -44.976257 0.85374987
13.955532 -44.977699 0.85402185
14.464973 -45.810295 1.0109395
13.515831 -45.064812 3.5121589
13.439608 -45.138435 3.8801894
13.341276 -45.233418 4.35496
13.969193 -44.023087 0.78831935
13.969193 -44.023087 0.78831935
13.460098 -43.982204 3.4775875
13.661049 -43.633644 3.9426877
13.772689 -43.439999 4.2010765
13.934719 -42.956219 0.71608716
13.934719 -42.956219 0.71608716
13.31692 -42.69474 3.5144103
13.54122 -42.888935 3.844491
13.817023 -43.127716 4.2503648
13.870005 -41.996403 0.65388447
13.870005 -41.996403 0.65388447
13.292928 -41.943581 3.4770627
13.33737 -41.960789 3.6012878
13.638917 -42.07753 4.4441652
13.878367 -41.055656 0.59307259
13.878367 -41.055656 0.59307259
13.383523 -40.942162 3.4806917
13.399008 -40.953709 3.545676
13.596032 -41.10062 4.3725076
13.835653 -39.920719 0.52793854
13.835653 -39.920719 0.52793854
13.531754 -40.054073 3.4587414
13.539877 -40.033131 3.5142927
13.64438 -39.763676 4.2289886
13.826754 -39.063419 0.47623491
13.826754 -39.063419 0.47623491
13.346979 -38.265083 2.9928572
13.518853 -39.157337 3.4171071
13.542835 -39.141624 3.4947543
13.749952 -38.993313 4.1670003
13.884088 -38.012905 0.4055317
13.884088 -38.012905 0.4055317
13.374566 -37.415112 2.9472651
13.307522 -38.067635 3.3325944
13.342421 -38.162949 3.4407859
13.75903 -38.489178 4.156199
13.875826 -36.938648 0.34024653
13.875826 -36.938648 0.34024653
13.354873 -36.848618 2.9324348
13.20567 -36.990547 3.1749284
13.174053 -37.039944 3.2976923
13.579246 -37.065651 4.1582179
13.75881 -35.882015 0.38956603
13.629719 -35.773247 0.53559852
13.402042 -35.607536 2.398329
13.558574 -35.646214 3.2269242
13.567958 -35.625626 3.3747394
13.559091 -35.841866 4.0850215
13.736793 -34.985088 0.39301404
13.587792 -35.016994 0.56565732
13.388806 -34.973274 2.3514237
13.61139 -35.01334 3.2450404
13.644338 -35.054825 3.4193294
13.61083 -35.060619 4.0415134
13.816073 -34.132549 0.25976357
13.739822 -34.198402 0.35167551
13.295005 -34.163578 2.6281211
13.395298 -34.226467 3.1534386
13.446431 -34.338104 3.3854442
13.630393 -34.632153 4.0196133
13.859829 -32.172909 -0.060665328
13.874475 -33.052189 0.099081948
13.874528 -33.055412 0.099667639
13.189887 -32.90797 2.8068442
13.188431 -32.968338 3.0024452
13.186459 -33.050068 3.2672725
13.846337 -31.343206 -0.020800717
13.908876 -31.983841 0.031829603
13.932629 -32.22715 0.051818356
13.145805 -31.956821 2.7915461
13.168242 -31.97242 2.9428892
13.210053 -32.001484 3.2249041
13.882412 -30.793974 -0.04306462
13.913966 -30.990129 -0.025032803
13.998734 -31.517076 0.0234077
13.513467 -30.839394 2.7373352
13.588108 -30.77286 3.0209146
13.667334 -30.702238 3.3219101
13.905952 -30.076084 -0.087102056
13.908183 -30.114798 -0.081577264
13.947948 -30.80488 0.016904343
13.519073 -30.139286 2.6893139
13.63505 -30.264231 3.0103085
13.764613 -30.403814 3.3689058
13.906388 -28.985737 -0.15816668
13.907426 -28.98525 -0.15736651
14.993965 -28.475706 0.68039829
13.112638 -28.990997 2.6095219
13.255161 -29.018112 2.8022332
13.747459 -29.111771 3.4678886
13.849305 -27.97897 -0.21853016
13.851332 -27.979225 -0.2169282
14.959876 -28.119305 0.65934712
13.107251 -28.13722 2.5477242
13.241055 -28.138096 2.723702
13.751228 -28.141438 3.3946812
13.808576 -26.917231 -0.28509936
13.808379 -26.917774 -0.28195742
13.745121 -27.092323 0.72581702
13.173893 -26.949749 2.5005159
13.418845 -26.790781 2.7682471
13.826688 -26.526104 3.2140148
13.836713 -26.006876 -0.34256223
13.835688 -26.008696 -0.34024346
13.351565 -26.868797 0.7549907
13.232228 -25.969971 2.4620235
13.526506 -25.987391 2.8310456
13.828943 -26.005295 3.2102983
13.874613 -25.054968 -0.39901984
13.873613 -25.054552 -0.39748445
13.227515 -24.785603 0.59438121
13.21902 -25.016615 2.3514881
13.443023 -25.238932 2.7317865
13.761087 -25.554602 3.2717772
13.918651 -24.058643 -0.45546618
13.917427 -24.059929 -0.45360807
13.107295 -23.331139 1.789001
13.230729 -24.006372 2.2127285
13.29972 -24.038868 2.4688568
13.531281 -24.106636 3.3435054
13.934687 -23.009272 -0.51785851
13.934687 -23.009272 -0.51785851
13.082996 -22.672359 1.9863781
13.611885 -22.698092 2.426852
13.606985 -22.730663 2.5094717
13.501233 -23.034105 3.2368264
13.936366 -21.991934 -0.57728857
13.936366 -21.991934 -0.57728857
13.064833 -21.432093 1.9721181
13.700902 -21.959749 2.5401993
13.729014 -21.952963 2.6415968
13.618798 -21.639935 3.1046996
13.925295 -20.990124 -0.63775182
13.925295 -20.990124 -0.63775182
13.061323 -20.888538 1.9519644
13.640103 -21.213333 2.4901004
13.774928 -21.255404 2.7644095
13.631839 -21.068382 3.104624
13.884137 -19.982691 -0.70330578
13.884137 -19.982691 -0.70330578
13.047548 -19.884459 1.8749139
13.419888 -19.92104 2.0348451
13.990323 -20.032427 2.8743358
13.532043 -20.02747 3.1078882
13.875479 -19.046637 -0.76826459
13.875479 -19.046637 -0.76826459
13.039903 -19.106295 1.8224169
13.447209 -19.04756 2.0314424
14.092503 -19.004095 2.8150251
13.491562 -19.151337 3.0593207
13.696173 -17.813196 -0.71591479
13.66483 -17.780054 -0.67752749
13.040774 -18.03911 1.5461731
13.568146 -18.099331 2.1140077
14.218305 -18.084572 2.7046714
13.496586 -18.549124 3.0237181
13.771304 -16.188141 -1.0169516
13.507769 -16.880985 -0.59546191
13.467079 -16.878677 -0.53465462
13.046813 -16.994366 1.0023698
13.764657 -16.856651 2.423763
13.942358 -16.792679 2.5919268
13.344693 -17.906004 3.0067732
13.829565 -15.352716 -1.0215496
13.575141 -16.250668 -0.67049718
13.492992 -16.423229 -0.55416757
13.04102 -16.275051 1.0196587
13.796661 -16.4214 2.4521155
13.930972 -16.492901 2.5853899
13.836159 -14.768911 -1.0479649
13.876579 -14.978651 -1.0309718
14.006294 -15.651724 -0.97643948
13.014217 -15.152698 1.6509755
13.851634 -15.05071 2.298207
14.175232 -15.011299 2.5483122
13.833219 -13.984362 -1.090932
13.836751 -13.988101 -1.0905279
14.675783 -14.876236 -0.99454254
13.444194 -13.757692 1.8198369
13.953415 -13.643679 2.2036138
14.065918 -13.618489 2.2884018
13.836721 -12.962102 -1.1494051
13.836721 -12.962102 -1.1494051
13.770338 -13.018695 1.9611473
13.934175 -12.718079 2.204093
13.951938 -12.685488 2.2304318
13.883348 -12.02216 -1.2034988
13.883348 -12.02216 -1.2034988
13.800846 -12.931677 1.968567
13.96114 -12.115934 2.2711651
13.967153 -12.085338 2.282515
13.944143 -11.011266 -1.2631954
13.944143 -11.011266 -1.2631954
14.219765 -11.207018 2.3009171
14.219765 -11.207018 2.3009171
13.911005 -9.9980173 -1.3242564
13.911005 -9.9980173 -1.3242564
14.827909 -9.3395233 1.9751786
14.580183 -9.9759817 2.2299113
14.554634 -10.041622 2.2561827
13.81503 -8.9860277 -1.3887364
13.81503 -8.9860277 -1.3887364
14.841876 -8.7717171 1.9491918
14.65832 -9.0436039 2.1509826
14.587983 -9.147789 2.2283075
13.785912 -7.9969325 -1.4507684
13.785912 -7.9969325 -1.4507684
14.291155 -7.7366972 1.9094949
14.221355 -7.8298888 2.0503442
14.156348 -7.9166813 2.1815226
13.841411 -7.0377283 -1.508319
13.841411 -7.0377283 -1.508319
14.285214 -7.1556931 1.8803343
14.109422 -7.2327566 2.0021501
13.869381 -7.337986 2.1684873
13.861771 -6.0034814 -1.5725174
13.861771 -6.0034814 -1.5725174
14.125181 -5.3813629 1.6015751
14.105747 -5.4356074 1.6492946
13.893428 -6.0282407 2.1706414
13.830955 -4.9735084 -1.6340635
13.830955 -4.9735084 -1.6340635
14.1589 -4.9592462 1.5897053
14.148036 -4.9410958 1.632614
14.029776 -4.7435184 2.0996971
13.880371 -4.0455437 -1.6824199
13.880371 -4.0455437 -1.6824199
14.499408 -4.0575595 1.6336683
14.417615 -4.0481668 1.7199142
14.063181 -4.0074654 2.0936463
13.969383 -2.999862 -1.735589
13.969383 -2.999862 -1.735589
13.938859 -2.7112141 0.91955143
14.002299 -2.8662572 1.3137182
14.015671 -2.9373524 1.4654198
13.929835 -3.366982 2.0742679
13.947312 -2.0268455 -1.7909366
13.947312 -2.0268455 -1.7909366
13.938859 -2.7112141 0.91955143
13.932747 -2.7113967 1.2752997
13.92532 -2.7139204 1.4096196
13.609525 -2.8604467 2.0438085
13.845404 -0.95960587 -1.8556498
13.845404 -0.95960587 -1.8556498
14.553156 -1.1328827 1.849761
14.553156 -1.1328827 1.849761
13.420007 0.99475926 -2.0059869
13.799315 -0.021868248 -1.9120982
13.799802 -0.023171617 -1.9119779
13.914996 0.58745879 0.86026829
13.928475 0.53702837 0.92522186
14.011102 0.22789665 1.3233788
13.639598 1.6630874 -2.0187879
13.775263 0.98437166 -1.9718347
13.822685 0.74712694 -1.9554222
14.020141 0.84964907 0.82165968
13.997989 0.87429458 0.89491373
13.880465 1.0050477 1.2835515
13.673381 2.177531 -2.0470004
13.724256 1.9582747 -2.0311298
13.877754 1.2967255 -1.9832444
14.242686 1.4045988 0.73994112
14.181666 1.4535 0.91174889
14.019673 1.5833207 1.3678577
13.716084 2.9757552 -2.0933692
13.716084 2.9757552 -2.0933692
14.68032 2.737335 1.394313
14.68032 2.737335 1.394313
13.790495 4.0104861 -2.151355
13.790495 4.0104861 -2.151355
14.437213 4.5388904 1.3626424
14.437213 4.5388904 1.3626424
13.806106 4.9847631 -2.20173
13.806106 4.9847631 -2.20173
14.418568 5.7058291 0.99182755
14.145237 5.3556576 1.2216238
14.144194 5.354321 1.2225008
13.844248 5.925909 -2.2516031
13.844248 5.925909 -2.2516031
14.418568 5.7058291 0.99182755
14.175315 5.6832647 1.1713173
14.174349 5.6831751 1.1720296
13.937587 6.9056363 -2.3072135
13.937587 6.9056363 -2.3072135
14.641151 7.6444597 0.97196585
14.726421 7.3232002 1.0540277
14.753478 7.221262 1.0800664
13.923083 7.933042 -2.3672657
13.923083 7.933042 -2.3672657
13.739169 8.6956062 -0.093569659
14.550785 8.4879589 0.46719524
14.593493 8.3538885 0.72159189
14.656401 8.1247883 1.1540514
13.941736 8.8925314 -2.4237626
13.941736 8.8925314 -2.4237626
13.739169 8.6956062 -0.093569659
14.396213 8.9825096 0.57604969
14.295589 9.1313486 0.836896
14.162271 9.3192625 1.1649904
13.93138 9.990696 -2.4876471
13.93138 9.990696 -2.4876471
14.082931 10.296691 0.48064071
14.064625 10.166167 0.61407292
13.991113 9.6420012 1.1499197
13.962275 10.81878 -2.5337834
13.962275 10.81878 -2.5337834
14.118118 10.505104 0.42858449
14.118118 10.505104 0.42858449
14.126756 12.015198 -2.608551
14.126756 12.015198 -2.608551
14.666247 11.983447 0.78766221
14.666692 11.991089 0.78987217
14.71513 12.824035 1.0307578
14.003266 12.99469 -2.667907
14.003266 12.99469 -2.667907
14.676496 13.070942 0.77434403
14.663658 13.087144 0.78743571
14.415476 13.400382 1.0405424
13.79832 13.766325 -2.7071278
13.79832 13.766325 -2.7071278
14.14675 14.419479 0.77473271
14.146177 14.404783 0.79381067
14.138216 14.200574 1.0588943
13.899455 14.885247 -2.7610614
13.899455 14.885247 -2.7610614
13.985862 14.696908 0.78001374
13.990728 14.680517 0.79855466
14.060598 14.445189 1.0647496
14.193209 15.996433 -2.8167481
14.193209 15.996433 -2.8167481
13.956113 17.214291 -2.8868394
13.956113 17.214291 -2.8868394
13.750981 17.523502 -0.027109154
13.886934 17.512184 -0.0099893287
14.362767 17.472567 0.049930055
13.065745 18.642878 -3.0026889
13.921054 17.582993 -2.9065461
13.932771 17.568474 -2.9052291
13.750981 17.523502 -0.027109154
13.886934 17.512184 -0.0099893287
14.362767 17.472567 0.049930055
13.962299 19.434519 -3.0205996
14.126943 19.225109 -2.9993379
14.441262 18.825327 -2.9587471
13.993783 19.787251 -3.0440316
14.051134 19.729385 -3.0368733
14.45259 19.324329 -2.9867654
13.923796 21.364893 -3.1426349
13.923796 21.364893 -3.1426349
14.517679 21.479649 0.22442044
14.517679 21.479649 0.22442044
13.974959 21.757399 -3.1507533
13.974959 21.757399 -3.1507533
14.705335 22.402195 -1.068851
14.483095 22.358845 -0.77604812
14.155839 22.257704 -0.16360201
13.964174 22.196442 0.20493925
13.9106 22.402296 -3.1723211
13.9106 22.402296 -3.1723211
14.705335 22.402195 -1.068851
14.483095 22.358845 -0.77604812
14.116721 22.341818 -0.20555039
13.858745 22.332973 0.20122854
13.436593 23.916697 -3.2927699
13.436593 23.916697 -3.2927699
13.450132 25.144495 -3.3401244
13.450132 25.144495 -3.3401244
14.14839 25.741104 -1.0940892
13.754211 25.661512 -0.86991465
13.472656 25.604662 -0.70979005
13.3385 25.174723 -3.3401046
13.3385 25.174723 -3.3401046
14.14839 25.741104 -1.0940892
13.754211 25.661512 -0.86991465
13.472656 25.604662 -0.70979005
14.98498 28.315868 -0.32159531
14.98498 28.315868 -0.32159531
13.889136 29.390268 -1.0306196
13.710352 29.448193 -0.56697798
13.703129 29.450533 -0.54824495
13.889136 29.390268 -1.0306196
13.720398 29.572916 -0.5628832
13.713845 29.580009 -0.54471868
14.448501 30.699154 -0.3940472
14.448501 30.699154 -0.3940472
13.98338 32.362148 -0.78296572
13.98338 32.362148 -0.78296572
13.98338 32.362148 -0.78296572
13.98338 32.362148 -0.78296572
13.61787 34.956207 -0.58988851
13.61787 34.956207 -0.58988851
13.710636 34.966152 -0.58879066
13.710636 34.966152 -0.58879066
14.329075 35.03244 -0.58147126
14.329075 35.03244 -0.58147126
14.079462 39.302597 -1.2693297
13.959092 39.316189 -0.87508827
13.957869 39.316326 -0.87107903
14.079462 39.302597 -1.2693297
13.959092 39.316189 -0.87508827
13.957869 39.316326 -0.87107903
13.139935 41.285961 -1.6840433
13.139935 41.285961 -1.6840433
13.139935 41.285961 -1.6840433
13.139935 41.285961 -1.6840433
13.684889 43.135452 -2.525846
13.684889 43.135452 -2.525846
13.684889 43.135452 -2.525846
13.684889 43.135452 -2.525846
14.055891 47.531528 -5.0605326
13.876132 47.548759 -4.4555268
13.970251 47.594181 -3.5379708
13.99079 47.604424 -3.1838977
13.989006 47.607094 -2.7095649
13.055819 47.697834 -1.653797
14.055891 47.531528 -5.0605326
13.876132 47.548759 -4.4555268
13.970251 47.594181 -3.5379708
13.99079 47.604424 -3.1838977
13.989006 47.607094 -2.7095649
13.055819 47.697834 -1.653797
15.219453 -78.366959 5.3254094
15.219453 -78.366959 5.3254094
15.219453 -78.366959 5.3254094
15.219453 -78.366959 5.3254094
15.605688 -73.021942 1.5827165
14.610356 -73.014893 2.556968
14.499763 -73.014114 2.6652184
14.94523 -72.977814 1.717876
14.993056 -72.763138 2.8049417
14.985039 -72.82222 3.2805188
14.984038 -72.798912 4.1288075
14.995419 -72.719284 4.9314046
15.020142 -72.613853 5.6981635
15.000611 -72.559753 6.582665
14.916673 -72.60936 7.5894179
15.37396 -72.541908 8.1509838
14.813137 -72.968994 1.7449079
14.985724 -72.500763 2.7720513
14.983196 -72.725929 3.2342875
14.984002 -72.798698 4.128828
15.001665 -72.706818 4.9402652
15.061076 -72.537582 5.7264924
15.091508 -72.4048 6.5159121
14.916673 -72.60936 7.5894179
15.37396 -72.541908 8.1509838
14.986132 -71.009689 2.6077847
14.986132 -71.009689 2.6077847
14.413999 -70.612534 4.5401993
15.160864 -70.653 5.4878421
15.302957 -70.922882 5.7220697
15.560051 -71.454948 6.1548634
14.953739 -69.95816 2.5351362
14.953739 -69.95816 2.5351362
14.452605 -70.192566 4.6781139
15.141668 -70.365105 5.4612947
15.179944 -70.389465 5.5185204
15.524413 -70.664703 6.0855269
14.902862 -68.821556 2.453181
14.902862 -68.821556 2.453181
14.921358 -69.823944 4.802887
15.326447 -69.008026 5.8780618
15.011336 -68.525436 6.0434151
14.7853 -68.201057 6.1556559
14.192464 -68.079796 7.1046762
14.974783 -67.960968 2.3924265
14.974783 -67.960968 2.3924265
15.299237 -67.691429 5.9200454
14.989072 -67.777153 6.08705
14.879158 -67.807884 6.1487584
14.192464 -68.079796 7.1046762
15.057121 -67.00248 2.3177691
15.0555 -67.000847 2.3210218
15.004438 -66.858841 4.9314609
15.138268 -66.543472 5.3822031
15.149014 -66.696609 5.7555528
15.065634 -67.268059 6.1289124
15.046832 -66.001114 2.241318
15.040578 -65.998978 2.2512228
14.93271 -66.701897 4.8825846
15.029923 -65.747002 5.2514381
15.053066 -65.657631 5.3343644
15.326129 -66.733421 6.0944953
14.799425 -64.789612 1.9074045
15.007859 -65.060989 2.1789677
15.003977 -65.064278 2.1879325
14.366055 -65.462051 4.4964633
14.978872 -65.209663 5.2757306
14.987935 -65.206207 5.2851138
15.599808 -65.939857 6.0021958
14.722331 -64.454735 1.9247756
14.965423 -63.967052 2.1080561
14.967189 -63.963509 2.1093881
15.316025 -63.171947 4.7508249
15.188198 -63.543129 5.3626385
15.106233 -63.781139 5.7549467
15.012971 -62.269848 1.9805537
14.992392 -62.954941 2.0436425
14.987144 -63.12962 2.0597281
15.067525 -62.675034 4.7399302
15.142735 -62.739964 5.0425076
15.320219 -62.893192 5.7565517
14.992861 -61.724182 1.9536552
15.022471 -61.988537 1.9796696
15.081912 -62.519192 2.0318894
15.004367 -62.089706 4.7150226
15.112226 -62.06749 4.9573722
15.40228 -62.007732 5.6090956
14.98936 -61.053581 1.9171077
15.001024 -61.080677 1.9210706
15.302224 -61.780346 2.0233982
15.015475 -61.120033 4.7368917
15.108296 -61.051132 4.9200788
15.316545 -60.896542 5.3310671
15.007309 -60.030109 1.8526272
15.007309 -60.030109 1.8526272
15.01438 -60.921932 4.7641845
15.099823 -60.501297 5.044342
15.186689 -60.073662 5.3291631
15.030917 -58.973568 1.7840976
15.030917 -58.973568 1.7840976
15.250432 -59.140186 5.3771458
15.250432 -59.140186 5.3771458
15.039845 -57.988461 1.722985
15.039845 -57.988461 1.722985
15.041497 -57.284504 4.6444507
15.226295 -57.667408 4.9769254
15.404069 -58.035755 5.296761
15.035721 -56.919064 1.6611204
15.035721 -56.919064 1.6611204
14.419815 -56.087284 3.8341906
15.042577 -57.092899 4.6894188
15.161693 -57.06134 4.9134083
15.324847 -57.01585 5.2208214
15.032349 -56.008224 1.6048541
15.032349 -56.008224 1.6048541
15.179208 -55.865322 3.954169
15.092763 -55.726433 4.3937979
15.093193 -55.768375 4.6130171
15.120843 -55.949406 5.2056489
15.007088 -55.00824 1.5355481
15.007088 -55.00824 1.5355481
15.184482 -55.863781 3.9550023
15.109164 -55.525299 4.4223142
15.109185 -55.425835 4.599061
15.135534 -55.112507 5.2025995
14.994354 -53.971767 1.4654605
14.994354 -53.971767 1.4654605
15.24885 -54.414391 4.7710662
15.212952 -54.181038 4.9613695
15.16993 -53.901375 5.1894393
15.020001 -52.97945 1.4007437
15.020001 -52.97945 1.4007437
15.449538 -52.95623 4.8041368
15.245352 -53.077354 5.0155616
15.086942 -53.171326 5.1795869
15.041024 -51.952919 1.3325021
15.041024 -51.952919 1.3325021
15.073641 -51.714081 4.7418017
15.046446 -51.859428 4.852942
14.976049 -52.235668 5.1406369
14.993292 -50.997955 1.2648124
14.993292 -50.997955 1.2648124
15.031672 -51.165112 4.6995363
15.009256 -51.192905 4.7437687
14.848422 -51.392338 5.0611567
14.974257 -50.052883 1.200146
14.974257 -50.052883 1.200146
15.408717 -49.833313 4.6177077
15.408717 -49.833313 4.6177077
15.078497 -48.23177 0.9867509
15.06158 -48.923038 1.1190712
15.061479 -48.927177 1.1198636
14.981853 -48.394451 3.6678011
14.96993 -48.452 4.1216049
14.962447 -48.488113 4.406353
14.958215 -47.316818 0.98326033
15.017426 -47.994553 1.0575045
15.021679 -48.043228 1.0628369
14.964287 -48.0425 3.6952651
14.971911 -48.165283 4.0602646
14.979436 -48.286446 4.4204569
14.99498 -46.579758 0.9580031
14.977532 -47.035702 0.99645853
14.960118 -47.490795 1.0348424
14.939728 -47.550472 3.7336597
15.160839 -47.235649 4.0975504
15.419147 -46.867867 4.5226564
14.983787 -45.963135 0.92355078
14.994234 -45.98975 0.92683589
15.279004 -46.715244 1.016379
15.495982 -46.093079 4.4242487
15.495982 -46.093079 4.4242487
14.964716 -44.974289 0.86050677
14.963977 -44.976913 0.86095542
14.712594 -45.870014 1.013656
15.929402 -44.287563 3.9922459
15.490292 -45.105 4.2729259
15.487914 -45.109425 4.274446
15.02089 -43.959637 0.79034036
15.02089 -43.959637 0.79034036
15.911808 -43.544594 3.9546044
15.289437 -43.647827 4.1661468
15.232367 -43.657291 4.185545
15.016098 -43.03056 0.72840565
15.016098 -43.03056 0.72840565
15.883582 -42.968281 3.9143221
15.270555 -43.048058 4.1748853
15.168025 -43.061398 4.2184649
14.978022 -42.004841 0.66306555
